ply
        format ascii 1.0
        element vertex 9674
        property float x
        property float y
        property float z
        property uchar blue
        property uchar green
        property uchar red
        end_header
301.472875 323.184716 1130.919948 155 120 105
271.164294 366.709139 1137.380761 105 74 67
293.535672 309.670112 1136.758491 49 43 57
-283.844851 267.992443 1669.802616 122 91 77
259.326865 380.484317 1136.686239 162 120 102
259.326865 380.484317 1136.686239 162 120 102
273.248940 349.909906 1132.034186 166 123 106
-283.922197 268.972661 1671.735832 68 33 25
218.668360 435.407634 1148.748580 128 96 77
218.116210 433.413749 1149.553241 62 45 35
218.116205 433.413768 1149.553242 62 45 35
235.873933 483.738274 1113.353589 94 77 91
253.641067 422.583395 1114.506684 156 116 98
252.036597 364.789244 1137.103340 99 64 55
-206.540409 317.624701 1585.780223 18 12 13
-206.540409 317.624701 1585.780223 18 12 13
-208.507516 319.850492 1587.159062 17 12 11
251.246635 366.944650 1134.819660 49 38 51
79.497699 361.890595 1298.407910 141 111 101
271.677793 308.046575 1133.596296 118 79 65
221.734734 431.312027 1133.886296 155 113 95
205.759633 426.474182 1149.243771 155 113 95
-151.396216 348.875247 1529.016120 198 144 115
-703.007263 260.958359 2085.037754 26 20 17
-845.456824 373.782118 2186.188103 68 41 33
-207.009947 324.364772 1586.251052 32 24 20
322.981996 272.547085 1091.934011 52 25 24
253.488522 328.693006 1136.652427 89 51 39
269.223178 311.818545 1127.354558 43 36 45
269.223178 311.818545 1127.354557 43 36 45
268.398755 317.486964 1125.310225 156 122 104
265.812887 315.294570 1124.927150 76 46 33
-196.639275 319.193634 1578.583137 20 14 16
-196.639275 319.193634 1578.583137 20 14 16
-771.059908 348.925534 2136.500758 151 123 114
236.726888 358.867616 1134.565754 164 123 105
-200.884899 325.047882 1581.805576 27 21 19
-200.884900 325.047883 1581.805580 27 21 19
255.291727 323.278640 1127.663881 101 84 87
261.443589 312.099517 1126.391665 41 34 44
-195.128035 321.180691 1577.368919 45 26 20
-161.362890 339.665635 1539.537468 110 99 100
-729.582878 348.031819 2107.238398 137 111 100
230.329734 367.217326 1130.906948 52 40 39
233.890048 371.059616 1125.400537 31 22 19
233.890048 371.059616 1125.400537 31 22 19
-754.867559 368.190913 2130.550393 67 34 25
219.374660 455.558959 1104.787294 4 4 4
219.374662 455.558960 1104.787296 4 4 4
251.668185 311.951881 1124.486401 44 37 46
227.207028 347.462593 1124.012848 167 124 107
225.012587 320.310193 1131.761650 169 125 107
225.012587 320.310193 1131.761650 169 125 107
204.779481 359.934513 1134.280328 117 78 67
5.740128 328.376387 1370.147218 152 112 93
-277.459439 310.197891 1677.161952 17 12 11
-273.479379 306.769985 1673.862347 18 12 13
-273.479379 306.769985 1673.862347 18 12 13
202.195529 361.770868 1133.470599 43 38 52
-267.705388 306.475234 1668.383955 157 120 105
221.538263 308.992570 1131.223005 114 78 64
221.538262 308.992570 1131.223005 114 78 64
201.334342 364.292080 1129.558945 44 32 32
201.334342 364.292080 1129.558945 44 32 32
201.813212 379.298224 1122.689454 38 20 16
201.593249 377.665902 1121.757067 26 20 17
218.009015 320.216564 1126.722461 68 41 33
-163.287941 327.000596 1546.800077 142 110 94
221.331140 327.581329 1119.210259 60 37 29
215.617476 326.302689 1124.342993 149 115 100
215.617477 326.302689 1124.342993 149 115 100
215.823748 312.942804 1128.982852 48 39 45
-263.342180 313.706251 1664.800845 106 81 79
-251.665380 342.716565 1644.050942 62 35 24
-251.665380 342.716565 1644.050942 62 35 24
211.774998 330.555403 1124.842576 125 101 96
-139.738774 338.344436 1518.434887 124 99 88
213.066366 323.391478 1126.459445 76 44 30
215.669176 321.377807 1124.337592 73 42 29
187.764786 370.573805 1132.587593 103 90 91
-260.974794 314.033813 1663.032679 103 89 90
180.078707 424.047187 1119.666138 152 113 94
178.978525 460.915857 1106.407429 27 18 14
177.654977 457.768911 1108.757956 132 96 83
-255.679874 313.192215 1657.966819 21 16 15
182.998018 467.932605 1097.210660 29 20 13
181.302253 457.610962 1102.862194 143 104 86
-261.447654 318.907858 1663.460742 27 21 19
-261.447654 318.907858 1663.460742 27 21 19
-250.293321 312.632387 1652.872844 132 100 85
-256.191283 318.219639 1658.469721 143 108 91
-256.191283 318.219639 1658.469720 143 108 91
199.100190 330.210835 1131.506396 120 105 108
172.082085 460.722328 1109.591474 161 105 83
200.470525 326.757747 1131.073510 118 103 105
170.963807 457.616793 1111.570636 163 107 85
-244.788947 311.473376 1647.760364 43 31 26
188.204383 375.698707 1122.372665 40 29 26
172.570161 455.945833 1109.007185 129 98 82
172.603873 459.910999 1106.793176 38 20 18
-294.775991 346.387828 1696.626341 54 30 23
-253.324858 319.759174 1656.013150 27 21 20
-188.920727 342.727014 1576.051758 47 23 16
189.009489 410.380161 1098.602090 158 115 98
169.732438 430.082500 1115.076796 122 91 77
175.246264 358.887787 1135.713843 47 40 52
197.906401 312.921331 1127.188403 46 34 41
-24.911656 357.573348 1373.311688 45 30 26
150.712897 314.451049 1157.798776 163 119 102
146.581204 408.823468 1119.011808 155 116 97
-104.990708 344.014320 1469.544949 131 94 70
141.402288 404.713686 1116.252309 33 23 22
-0.881930 369.372848 1301.629194 37 24 20
-135.278296 329.115916 1514.448901 38 27 24
151.539487 410.039291 1097.871356 26 21 18
-138.607197 331.655293 1518.802288 36 24 21
127.308825 355.905288 1150.638794 48 36 37
153.559490 417.689544 1088.460842 89 67 70
-146.940044 338.986509 1530.004935 48 32 29
-147.356572 339.352147 1530.552585 41 25 23
-254.963240 341.274844 1674.846044 51 42 55
-219.226233 323.563947 1631.783965 37 25 22
-145.661475 338.662623 1528.371800 121 99 92
136.653141 326.014361 1149.152603 119 90 78
139.235820 322.479532 1147.134356 135 104 86
139.235822 322.479532 1147.134357 135 104 86
138.526605 403.646985 1111.099424 69 60 76
-264.932016 350.586168 1686.864450 151 117 98
-210.352461 320.971890 1620.869747 142 110 94
140.950211 314.964643 1148.057064 55 41 47
156.342826 435.734170 1069.873670 159 120 106
104.486460 359.904147 1171.824313 93 74 78
120.407490 353.161103 1153.524805 38 35 47
118.923878 353.041291 1155.491093 38 35 47
133.914896 322.383296 1149.227250 135 104 90
156.981799 433.653884 1066.842687 42 31 27
102.064011 325.313111 1188.893297 137 109 96
102.064011 325.313111 1188.893297 137 109 96
-203.991522 323.311520 1613.202671 34 21 21
-206.510421 324.833624 1616.446833 38 28 22
-132.060844 332.281759 1509.694762 26 16 19
112.899761 352.542558 1160.710634 36 32 46
119.933405 329.215500 1161.585823 119 108 110
152.917716 428.963407 1071.048934 140 106 96
152.917716 428.963407 1071.048934 140 106 96
-240.400359 344.052708 1658.986960 110 99 100
-140.223503 338.733667 1521.368533 39 24 22
-195.262593 323.600728 1602.061361 34 24 20
-229.465381 341.689664 1645.709880 139 111 98
-198.762987 325.674828 1606.608652 42 28 22
-97.803445 334.380234 1443.354604 140 106 96
122.412997 395.912825 1118.038774 94 64 60
122.413006 395.912808 1118.038770 94 64 60
100.263624 351.321236 1168.195304 41 34 48
113.506781 375.712423 1136.562707 155 115 96
91.137694 347.413109 1179.145007 166 123 107
88.304613 309.404462 1188.967800 116 81 67
77.619944 306.866729 1206.166497 21 20 25
-48.667764 351.136868 1375.370480 32 21 19
-98.593344 336.700236 1454.571289 31 18 21
-48.528803 353.787216 1373.742717 163 123 107
-166.894263 341.444464 1563.801420 34 21 20
-162.905467 339.909546 1557.817189 48 32 29
1.371957 323.474327 1302.425334 144 106 89
-137.231837 330.085170 1518.433795 29 20 18
-160.556838 338.978301 1554.524521 50 41 53
-138.486182 330.565195 1520.434801 33 21 18
-160.652269 339.457160 1554.657824 121 99 92
-57.038234 333.180929 1400.759045 48 39 45
-50.393950 339.398060 1379.882711 38 35 47
-159.859007 341.584850 1553.826859 142 113 99
-55.779922 351.058839 1381.561463 159 120 106
-136.094092 328.982384 1515.963463 38 27 24
-65.083790 334.319207 1394.015602 110 99 100
-97.034330 336.521924 1449.908315 45 29 23
-58.681745 349.134026 1385.275516 140 106 96
-11.225417 343.949615 1304.324158 42 28 22
-122.030097 331.102977 1492.995347 131 101 92
-151.748384 340.992865 1541.848994 110 84 71
-87.692547 338.194405 1428.336475 140 106 96
33.320351 358.546486 1225.275641 43 38 53
-190.377496 346.182160 1583.822385 67 52 53
-96.188926 336.135160 1446.316164 56 38 27
-112.282886 333.250139 1477.751731 101 74 62
-345.585178 310.038185 1899.094137 133 99 84
-345.585178 310.038185 1899.094137 133 99 84
-462.928209 305.798943 2109.877708 62 47 41
-113.675939 332.683311 1474.805476 32 22 19
-234.336400 318.224056 1701.838675 100 76 76
-470.529358 302.857930 2139.025304 80 61 65
-97.340302 334.549087 1442.675275 140 106 96
-73.155553 339.409486 1396.833468 131 101 92
-261.827653 397.412388 1739.773394 245 182 158
133.347527 427.989024 926.186667 96 72 66
127.885876 422.844610 940.275599 90 68 67
2.692379 352.726651 1232.463183 50 29 32
-120.275083 333.531676 1492.320439 47 28 26
-179.425235 330.448204 1613.549408 41 24 24
-5.031927 350.565740 1248.425496 82 59 49
-41.876713 343.038616 1327.804491 65 46 33
-81.551226 337.253860 1411.804454 74 54 41
18.094881 356.054798 1197.547277 131 99 85
-165.846971 330.090357 1587.120784 85 63 49
3.874771 352.657996 1227.391874 49 28 23
-72.769168 338.050205 1393.145247 47 29 25
-213.213638 330.358832 1684.937524 47 28 21
-106.287142 331.785770 1458.281164 15 10 6
-77.927719 337.652427 1393.245118 152 114 96
-66.706501 339.920704 1379.114153 137 106 88
-104.471500 331.436765 1454.907247 22 12 6
-10.986822 348.972429 1256.214277 64 47 37
-74.445954 334.439386 1385.527582 72 52 48
-116.553651 333.568095 1486.482459 82 62 51
-231.611496 326.102821 1731.517597 73 56 47
-65.814333 327.792521 1366.758825 28 13 15
-105.614569 330.987713 1456.973456 38 72 68
-119.245343 328.024217 1485.392227 153 114 87
445.919142 121.611717 285.867436 118 83 66
-123.482667 323.119113 1496.368560 44 70 55
-124.595793 322.490841 1499.478809 17 12 8
-124.595793 322.490841 1499.478809 17 12 8
-133.985527 336.044806 1543.411662 145 103 87
-61.258885 323.649188 1357.695553 37 30 39
38.450549 417.631609 991.016435 19 16 17
25.370936 407.107523 1030.475100 124 88 70
30.182864 418.949402 995.590322 23 19 20
30.182864 418.949402 995.590322 23 19 20
173.252082 153.137505 762.978555 58 38 31
22.156692 414.899572 1008.864213 117 84 71
15.540504 415.256404 1028.226797 16 15 16
31.285376 430.203102 925.580640 130 82 70
37.697381 435.848520 890.320477 133 83 66
163.358973 150.831445 701.595843 131 94 70
72.634869 444.922020 692.932759 31 24 26
106.553751 419.954830 586.711206 30 18 16
-181.545567 333.465763 1681.820935 57 35 32
260.808632 276.131771 152.691092 41 26 21
244.803055 280.638634 188.718198 145 108 87
235.053934 198.176181 327.223744 148 109 98
-37.178937 309.812845 1252.941424 46 27 22
277.088437 267.505923 76.307745 129 96 79
104.629736 420.550885 548.001759 28 16 14
208.849152 280.196208 283.158726 45 29 23
-113.750293 328.659780 1453.286283 135 104 91
206.554305 291.899702 275.477040 55 33 30
199.412438 301.326264 291.627914 52 33 29
180.271458 340.787191 319.414621 62 41 37
200.746282 271.235600 305.909988 27 20 24
114.523566 398.656070 493.237442 17 16 18
190.670426 225.219396 387.438778 67 56 63
64.478279 447.439699 616.876558 24 21 22
49.173298 461.814861 632.434286 25 17 25
-215.033743 358.199538 1900.049418 45 29 23
-216.328384 353.802183 1911.390249 55 33 30
-137.506236 333.875043 1625.303986 38 32 34
-139.596939 329.456116 1559.015219 55 47 49
-141.838533 339.566407 1566.371887 72 52 48
-133.994362 321.637564 1545.739951 132 95 76
-130.394281 322.914179 1536.044661 132 95 76
-130.064099 321.003163 1538.950577 42 15 9
-128.601482 343.358260 1462.752715 247 196 179
-128.610755 343.360240 1462.759480 247 196 179
778.046706 210.380242 1128.013092 58 37 32
-107.350746 325.994527 1411.513357 83 69 81
592.069889 446.399410 1135.269163 34 21 20
662.739951 451.223629 1113.354718 42 23 11
-381.721100 330.099789 1561.645376 138 114 111
369.637337 383.764423 1247.164640 139 103 85
370.540313 387.677589 1246.159209 22 18 28
359.323882 406.953369 1246.443067 71 48 45
-379.315653 341.871372 1563.469164 161 117 104
364.710514 384.532400 1246.070736 55 32 33
363.843921 386.842207 1245.719759 73 45 47
338.460091 471.618511 1241.511792 133 93 74
342.353943 444.687492 1243.645919 50 31 24
341.190082 459.429268 1238.404698 108 77 68
-377.202030 346.416574 1565.919984 37 32 41
342.142166 456.613350 1238.341921 96 71 65
341.856837 453.743335 1238.533632 91 68 66
340.218665 457.322626 1237.054307 18 13 9
334.187222 463.839397 1237.351400 124 91 71
332.063178 463.863366 1236.872250 80 48 36
372.053367 323.587309 1241.045480 96 63 55
348.329933 382.529463 1240.787820 84 54 41
330.543334 462.814381 1236.018311 124 87 69
320.006518 485.588792 1236.973545 40 12 15
318.524312 486.520561 1236.618250 160 99 80
-300.605490 291.782651 1544.355167 42 36 49
318.893052 483.760652 1236.604330 159 98 81
-195.411588 316.998133 1493.662783 140 111 102
327.298400 453.066616 1233.980674 81 62 61
-297.024552 294.529578 1544.790820 158 123 108
343.737430 386.994458 1234.116930 61 47 42
323.043812 449.273322 1233.726813 71 61 74
323.043812 449.273322 1233.726813 71 61 74
340.983304 392.870449 1233.612465 143 102 86
341.228559 391.951348 1233.508640 140 105 87
341.228559 391.951348 1233.508640 140 105 87
322.623147 457.672252 1231.642095 111 82 69
319.617698 460.161229 1231.901638 130 94 82
321.906591 457.710277 1229.745902 18 13 9
321.794357 452.610452 1230.460701 15 11 6
-297.512407 303.534763 1545.830364 29 19 16
338.397151 389.506659 1231.903953 26 17 14
310.423198 463.293230 1233.375340 57 37 34
315.869464 458.945674 1230.697920 137 102 85
332.280367 383.510501 1233.107021 46 42 55
13.315195 345.708032 1364.034904 44 38 46
328.046875 398.055390 1231.806263 101 86 89
312.422782 458.055005 1229.459725 138 101 84
-294.684198 306.116351 1546.289559 107 92 94
332.162896 387.427785 1230.750206 105 88 92
332.162896 387.427785 1230.750206 105 88 92
312.589499 445.454413 1230.262283 23 15 8
-947.306785 201.372681 1870.365175 150 118 99
-806.298645 225.754374 1811.610969 31 20 17
-295.106745 342.119146 1543.013895 158 118 106
-233.152599 273.410185 1515.672117 132 103 94
327.525958 387.882045 1228.654757 21 17 12
343.716008 337.823772 1228.605444 160 124 106
319.922945 407.227585 1227.985047 163 127 112
296.746214 474.457937 1227.885442 6 4 5
323.499537 389.288619 1227.486993 149 114 97
-284.543478 300.615587 1545.593421 49 28 16
304.723698 438.201098 1228.766746 22 19 33
-351.397447 343.193022 1573.221045 163 127 111
291.574659 490.583423 1226.296399 97 81 89
313.055738 275.986791 1251.855745 67 42 37
320.226320 383.882621 1227.980368 60 48 42
324.239989 365.266349 1228.077677 167 123 106
-345.937355 339.333955 1572.423101 162 125 110
288.320837 457.498006 1227.607780 143 100 85
-345.767536 347.432689 1574.020977 46 33 39
290.205203 444.216446 1226.569161 149 107 90
-333.836076 333.125208 1571.774611 162 129 115
272.795061 486.761251 1222.467276 15 11 7
272.795061 486.761251 1222.467276 15 11 7
311.591319 346.826415 1224.206565 34 29 42
311.591319 346.826415 1224.206565 34 29 42
276.369578 474.926147 1221.452940 25 15 11
276.369578 474.926147 1221.452940 25 15 11
-335.763669 347.613930 1574.940249 41 31 41
316.069545 323.800830 1222.157925 56 49 59
271.804778 482.103921 1218.902592 137 96 81
312.739404 321.777870 1221.266805 98 65 59
274.644858 425.771028 1221.343150 154 113 95
-757.575780 84.071045 1849.078076 102 81 80
277.938323 405.991344 1221.423828 156 114 98
268.075034 462.659126 1216.818616 36 31 46
293.405045 372.913059 1217.743624 159 116 99
276.980859 406.592038 1220.940226 156 115 97
-108.275566 322.362022 1450.317075 132 98 82
-184.157689 323.396702 1467.292680 47 40 51
307.071650 311.392696 1220.705867 111 78 62
288.018475 384.444060 1217.154894 104 88 94
-782.059622 92.569407 1866.923100 94 72 58
276.237015 460.013654 1210.511031 20 15 9
269.250625 423.196153 1220.636298 157 113 97
275.939617 448.368837 1211.807495 22 15 10
284.229927 376.362656 1219.177439 51 44 56
-436.960455 275.531241 1646.705711 47 26 17
267.993334 460.123750 1212.480710 82 47 37
-119.221506 342.959714 1458.629437 119 81 67
269.950472 432.680306 1214.699216 44 32 29
257.254878 470.532362 1214.860291 142 99 83
268.046473 443.373487 1212.692597 105 75 67
266.460915 457.017494 1211.030675 17 12 11
-728.818922 92.787580 1846.817643 14 10 9
282.090366 378.860632 1214.276045 47 33 34
267.742973 447.572750 1210.221985 18 12 9
266.148405 451.254900 1210.433993 19 12 8
266.148405 451.254900 1210.433993 19 12 8
264.697075 442.425308 1212.085197 109 80 71
265.558247 453.866150 1209.514857 101 75 70
111.630495 362.845345 1319.233991 69 85 106
265.108045 448.381138 1210.319081 108 80 73
265.323758 440.510247 1210.841652 112 82 72
264.774369 445.345985 1209.821803 92 71 73
261.903559 446.884606 1210.161374 92 78 81
261.903559 446.884606 1210.161374 92 78 81
261.293890 428.050877 1213.561384 37 32 44
271.667048 415.483432 1209.480336 159 116 99
260.227213 446.913987 1209.181198 116 84 68
260.227213 446.913987 1209.181198 116 84 68
277.057075 385.892518 1210.038639 120 93 88
234.472101 443.124669 1221.992708 89 69 59
259.073839 446.616875 1208.520386 85 63 47
259.749284 441.178661 1209.008182 118 87 72
-157.136327 341.786455 1476.494143 91 81 89
259.272500 454.950152 1206.663833 17 12 11
259.272500 454.950152 1206.663833 17 12 11
287.280226 340.643764 1210.027934 121 80 62
-971.515168 199.125106 2008.924450 143 114 103
-759.037484 220.534323 1865.746817 145 115 101
247.806600 477.889371 1209.983347 27 21 24
-543.808181 256.599564 1718.778831 145 115 101
-800.679716 256.398689 1888.002548 49 43 56
253.794708 455.795825 1206.962312 93 56 42
254.242665 456.633323 1205.600959 142 107 93
254.242665 456.633324 1205.600959 142 107 93
565.629686 631.194519 949.868240 10 8 8
283.034167 323.993854 1210.080134 93 83 93
283.034167 323.993854 1210.080134 93 83 93
252.598299 428.568528 1209.195313 47 34 28
255.127044 441.689657 1204.475274 22 16 12
265.345301 376.458698 1209.151976 68 53 45
-1048.437576 331.028594 2040.656262 114 74 57
-647.574289 135.768054 1819.479572 116 85 77
-741.861074 240.589798 1867.571589 28 20 17
-1080.501007 356.854157 2059.399341 121 79 62
-749.070767 251.126646 1871.066690 34 23 20
240.722342 475.715561 1205.177916 27 20 24
247.005619 424.577287 1207.653243 37 31 47
-1014.349305 332.575040 2034.160714 118 81 61
278.824782 323.207401 1203.780501 58 52 63
-1001.777861 327.303780 2032.489081 162 130 119
253.498413 370.287642 1208.712044 96 67 62
243.645255 403.374133 1208.362407 133 90 72
269.337307 322.091693 1205.206052 56 49 63
269.337307 322.091693 1205.206052 56 49 63
234.052231 435.447022 1205.680755 152 112 94
247.128350 382.054967 1203.885722 167 122 106
344.152001 259.841548 1160.910549 74 46 41
-256.739465 342.335567 1556.477366 174 130 113
-134.988684 329.675238 1472.322303 43 37 50
229.763646 426.715244 1199.241994 71 43 42
315.869868 468.584060 1130.814706 79 63 58
315.869868 468.584060 1130.814706 79 63 58
289.663795 459.589024 1148.772708 79 63 58
-179.243943 316.587072 1499.118344 23 17 17
413.087873 491.675592 1043.978789 146 113 98
236.230467 367.782234 1204.688651 109 77 63
227.578904 432.619358 1196.697751 117 85 73
227.140197 440.955026 1195.204516 20 15 12
-250.599848 348.007469 1555.444743 55 47 58
226.625530 421.696035 1198.575227 22 18 19
-231.529529 309.513592 1547.754964 38 21 19
251.449933 323.420680 1198.916041 47 34 39
396.344292 486.292032 1056.164271 146 113 98
-645.633492 254.222248 1850.463423 22 17 18
225.187950 445.083558 1192.905524 14 10 9
225.187950 445.083558 1192.905524 14 10 9
221.061835 471.230487 1191.283959 10 8 8
-113.107411 329.835644 1458.773932 31 17 17
222.839033 447.414911 1192.680807 135 105 94
222.839033 447.414911 1192.680807 135 105 94
249.637018 322.427905 1197.782968 55 47 61
230.806630 390.948939 1197.100460 158 123 108
356.970305 473.609417 1084.764665 146 113 98
-814.029727 223.320327 1991.640899 151 119 105
223.744739 441.988634 1192.025830 106 80 71
-644.582599 260.014798 1853.867253 152 112 96
-644.582599 260.014798 1853.867253 152 112 96
223.841490 437.051931 1192.640103 116 88 77
223.639220 430.538925 1194.000404 59 32 28
248.243913 327.797941 1196.149516 156 118 102
-202.822523 315.654700 1528.327422 33 20 19
-202.822523 315.654700 1528.327422 33 20 19
-199.285452 316.196800 1524.780245 33 20 19
485.540641 221.925649 1039.328450 255 205 183
-617.623694 258.256110 1838.400374 24 19 15
246.840377 329.809586 1194.285221 124 82 63
383.512035 335.713757 1087.020769 113 74 60
245.160371 324.605712 1193.868560 151 114 103
227.026011 389.771183 1193.688993 116 99 102
470.891577 227.139800 1041.687855 95 53 33
225.624024 378.531746 1196.262241 112 91 92
-224.902997 315.942782 1546.220091 110 89 92
-715.104871 349.211366 1906.397576 108 93 95
549.286604 207.006664 987.423015 254 206 182
240.852191 322.279580 1195.358334 96 87 95
240.852200 322.279585 1195.358349 96 87 95
-663.330432 284.519893 1878.672267 171 127 111
215.754000 422.595430 1193.029126 129 96 80
467.621373 234.577809 1036.731692 57 32 25
214.352722 444.276793 1189.291054 83 51 41
214.352722 444.276793 1189.291054 83 51 41
-267.581854 307.005662 1581.083667 33 18 14
214.839176 428.297208 1191.425836 59 31 27
502.036370 210.369350 1014.005940 255 205 190
505.639514 199.034341 1013.379759 254 204 194
-220.398507 314.942531 1544.511151 23 17 16
523.500430 191.396203 1002.039958 255 207 192
238.193523 329.545562 1192.694244 121 79 62
488.004550 200.034365 1025.557683 255 207 192
190.864660 430.604207 1205.803601 99 75 62
495.984446 213.238949 1016.411021 221 153 139
495.984446 213.238949 1016.411021 221 153 139
-571.176857 244.990263 1820.098552 30 20 18
212.827192 441.277207 1188.664088 57 42 30
158.628583 338.397340 1251.705188 123 82 65
212.179516 443.724223 1188.315980 90 58 44
135.431259 369.934397 1260.946056 38 23 23
490.319042 213.242142 1018.889711 254 209 184
490.319042 213.242142 1018.889711 254 209 184
212.441360 439.730326 1188.517870 32 19 14
484.810586 209.636311 1022.499019 255 206 184
211.950632 444.377481 1187.056601 132 103 94
140.031054 403.635202 1251.299692 59 32 28
211.732665 441.305320 1187.051037 113 87 78
211.732665 441.305320 1187.051037 113 87 78
212.634407 434.082800 1187.610218 116 85 77
209.741976 441.432201 1187.994399 61 40 47
-556.500284 249.639661 1814.196687 24 19 15
460.301274 213.778947 1037.058144 169 104 86
231.448893 336.988761 1191.281816 118 81 61
158.654318 330.004806 1250.648976 163 127 111
230.979758 335.785393 1190.679851 113 74 60
229.145768 338.695171 1190.663328 162 130 119
229.375917 335.010992 1190.975815 163 129 116
-217.072360 313.974553 1546.020995 154 125 108
232.074019 328.505477 1190.006073 157 122 112
231.977325 322.610062 1191.052448 41 31 41
570.188190 195.794058 946.006654 254 209 187
184.496554 423.161812 1200.219752 157 114 97
190.200625 425.117271 1195.847288 157 114 97
280.610879 259.136693 1149.207488 254 209 187
210.779935 351.559206 1189.317051 173 128 111
-637.617182 355.419542 1885.481743 174 130 113
193.482960 433.870775 1184.208642 32 15 10
179.628297 417.639995 1197.122153 157 116 99
176.965622 417.863871 1197.413534 66 50 37
176.845051 416.313119 1197.789885 59 30 28
-85.698163 329.772640 1436.534612 45 15 18
213.508867 318.767039 1186.478745 120 79 69
175.087719 416.334363 1197.416725 151 114 99
471.940275 225.127273 979.703103 138 103 88
-166.529215 337.107123 1507.387481 57 46 61
471.614633 225.208353 976.570451 150 108 90
-659.357399 366.464811 1926.391992 79 48 34
-659.357399 366.464811 1926.391992 79 48 34
-154.085767 322.258385 1499.173371 31 14 15
-542.536477 282.769494 1840.979246 35 23 24
207.462368 334.279466 1179.788351 93 51 34
-527.428512 276.459688 1830.273728 148 110 95
205.154788 337.189553 1182.116324 153 121 109
242.651520 289.663590 1159.876481 49 23 19
184.761870 461.108780 1171.660876 69 58 76
-620.623800 356.932285 1903.791632 74 48 38
-121.064505 338.706953 1467.863333 33 19 13
-152.481177 322.234841 1498.721532 149 121 104
-153.632990 325.538566 1499.534311 102 81 83
-151.987007 322.362671 1498.598630 103 85 88
201.840088 330.267941 1180.252948 110 90 91
-160.875358 338.270508 1504.379791 110 93 96
-149.775156 323.387156 1497.065753 21 16 13
-246.868815 305.763489 1565.842404 42 21 15
-147.761830 324.205938 1495.808028 34 18 19
-148.089762 324.711494 1496.035877 31 18 17
195.634872 333.880039 1177.650999 85 51 35
195.634872 333.880039 1177.650999 85 51 35
-145.921496 322.357977 1494.575017 21 16 16
-146.800963 323.885239 1495.192836 24 18 16
-148.556875 326.821836 1496.434640 25 20 17
-155.962593 338.516512 1501.734033 61 36 29
-146.816485 324.974458 1495.208514 35 25 24
-123.725773 339.625519 1471.408977 66 38 24
-155.158963 339.229031 1501.331495 157 127 109
548.594773 199.068633 869.870830 75 47 48
177.614185 348.738480 1177.688212 176 130 113
170.278504 370.198032 1178.868035 171 127 109
170.278504 370.198032 1178.868035 171 127 109
181.803900 327.255941 1177.654764 174 130 113
181.263791 317.781843 1174.676136 115 78 68
-247.029541 351.265182 1595.863883 55 48 61
-233.735176 337.929798 1585.593765 57 46 61
-241.787553 348.161985 1592.107027 71 43 31
-241.787553 348.161985 1592.107027 71 43 31
-207.240917 311.408227 1563.386118 23 16 14
172.585738 335.292746 1173.584820 144 114 105
172.585738 335.292746 1173.584820 144 114 105
-172.093476 318.548440 1526.800050 25 13 14
164.318109 362.355458 1174.083870 35 23 24
566.792726 192.129677 806.660695 145 104 92
-126.046763 329.146514 1477.779155 149 113 97
-131.690709 337.988326 1482.410548 151 121 107
-172.776431 320.787934 1527.492201 142 110 89
-171.400579 320.624318 1526.449367 34 18 19
-100.697444 325.157894 1443.551398 26 16 18
176.202755 326.510632 1167.711508 74 48 38
-125.073005 329.749465 1476.970160 20 16 16
-184.586738 339.067775 1537.868250 55 30 24
-199.681299 314.361443 1558.065313 149 121 104
160.890562 360.129534 1172.436297 49 46 63
-131.980049 342.288293 1482.860797 44 35 46
-198.001601 314.712633 1556.732712 103 85 88
-221.313441 339.833739 1577.096179 110 93 96
-219.557944 342.411546 1576.378358 60 35 28
-198.619894 321.005440 1557.833144 31 24 21
-121.088992 329.175965 1473.580875 21 16 16
-194.028883 316.395739 1553.676900 21 16 13
-191.986883 314.075355 1552.099361 20 14 15
-212.977416 339.108817 1571.068305 143 116 103
16.153755 336.048378 1328.184810 97 53 39
-127.655439 342.083059 1479.419982 53 41 52
-214.669113 344.664615 1573.044515 74 46 35
-214.669113 344.664615 1573.044515 74 46 35
-216.817520 347.127305 1574.945475 76 47 33
-185.832530 315.187534 1546.921030 21 16 16
163.492165 330.769554 1165.305717 167 133 119
152.088431 369.224932 1167.197746 154 125 108
-7.896496 359.122595 1345.465148 32 15 10
-9.916976 355.690818 1347.523110 157 116 99
-10.827321 355.292785 1347.874293 59 30 28
-83.969144 330.467705 1431.902264 45 15 18
-10.828753 355.656284 1347.808028 66 50 37
-10.828753 355.656284 1347.808028 66 50 37
47.480963 354.107177 1269.714943 168 125 107
-207.797846 373.540367 1573.353857 141 105 84
125.124677 362.550155 1166.906776 174 129 112
-148.236294 311.048764 1515.254680 29 25 38
141.457912 318.656121 1151.487192 53 42 49
-104.385555 331.501848 1456.943146 34 22 21
141.989630 322.219501 1149.032995 162 125 108
-99.607802 325.460403 1451.402065 28 20 21
-139.791589 324.640102 1503.787286 27 17 13
-102.544987 330.589080 1454.752191 129 103 89
-101.909337 330.550891 1453.966442 38 23 23
-134.233006 310.544798 1497.772020 35 31 37
-187.602678 345.937397 1562.647469 135 102 96
141.400236 325.918504 1143.481265 147 118 105
-101.685125 330.593543 1456.279431 46 29 26
122.214711 368.058343 1153.363475 149 121 104
121.720418 359.909154 1155.451769 102 81 83
-134.807681 313.365947 1499.359136 77 58 66
126.790488 343.598497 1151.314678 174 130 113
-102.789810 331.136775 1455.218840 38 21 23
-97.944667 325.727452 1449.301245 76 59 46
-97.944667 325.727452 1449.301245 76 59 46
133.377188 323.594370 1144.783325 74 46 35
130.648603 329.853391 1145.963546 61 36 29
-120.597703 313.506296 1479.977513 57 39 32
115.542924 355.271653 1157.083119 60 46 47
135.260255 317.858785 1141.834915 49 38 45
-90.504073 333.836312 1421.305730 60 46 47
-163.446975 339.014679 1536.955561 55 47 62
-93.837460 327.338643 1443.400234 22 17 16
-93.390939 326.910036 1442.797118 33 24 19
-147.375410 324.809992 1517.683711 151 116 101
115.741684 363.365055 1151.185088 151 121 108
126.927153 365.014932 1136.502284 151 121 108
-117.582052 315.330249 1476.439934 62 38 34
-85.470276 333.726829 1417.859512 107 80 68
-77.380279 333.339028 1409.161223 76 59 46
102.328337 361.136214 1139.584952 107 80 68
-119.985765 339.857107 1481.693294 33 21 19
86.561646 340.642368 1167.341205 172 129 114
-117.717429 339.371650 1478.607941 150 121 102
106.256579 329.613561 1140.728130 156 128 114
106.256579 329.613561 1140.728130 156 128 114
-76.094625 333.814893 1406.651751 76 59 46
94.814627 355.915746 1145.908176 115 88 87
-74.086730 337.789097 1408.079636 46 22 25
79.035458 350.504730 1163.936619 62 48 49
-71.568248 335.384569 1397.981736 95 73 67
-71.568248 335.384569 1397.981736 95 73 67
-71.371572 335.563284 1397.432630 76 59 46
94.935135 330.451009 1144.239694 55 47 62
92.254658 359.419433 1137.418360 151 116 101
-49.768726 346.629074 1374.568783 73 50 50
39.600856 334.880698 1218.062095 169 125 110
484.728218 203.733646 521.383645 201 143 116
73.126007 355.569917 1152.447320 162 118 101
165.734469 306.923722 995.337970 68 50 44
165.734469 306.923722 995.337970 68 50 44
-12.869457 331.346466 1296.864711 46 28 19
65.443275 327.411308 1158.356473 34 23 19
48.539676 347.133804 1181.242072 64 48 45
217.894375 304.300090 893.617955 126 95 90
28.399650 328.748093 1222.092937 150 121 102
49.205522 326.866926 1184.865490 121 93 88
53.467841 349.270451 1168.863477 35 25 21
-54.970542 342.566360 1375.641050 7 2 41
86.892430 364.487613 1101.730027 33 24 18
-0.750955 344.879122 1265.714495 100 76 80
67.766054 358.670228 1135.354326 116 89 88
474.533596 275.371987 423.951106 135 102 88
504.196911 266.290070 364.712205 25 18 14
80.796686 364.947661 1101.797644 133 99 88
26.028472 346.162988 1210.957721 27 18 14
77.653531 362.905797 1105.935516 43 30 26
77.653531 362.905797 1105.935516 43 30 26
112.298278 415.192270 1012.637369 126 95 76
-40.994092 324.679582 1338.843848 138 80 64
339.735435 274.866652 598.553902 49 26 28
379.258088 264.975709 520.048986 81 64 50
-81.280956 334.233197 1418.762969 83 59 45
342.360884 261.438931 591.394557 47 26 16
7.778808 342.275347 1233.922188 131 99 92
29.291929 346.702378 1187.891767 138 107 99
64.149297 359.198507 1110.059048 138 109 97
-57.716512 331.578160 1364.708218 157 116 96
18.669899 342.735081 1209.225712 116 89 75
-66.649792 335.925688 1385.608357 149 112 91
95.870140 396.520641 1025.419419 17 14 28
95.870140 396.520641 1025.419419 17 14 28
59.107347 354.127140 1119.656099 120 93 76
36.994875 346.515136 1168.156188 63 35 31
-60.927484 333.585358 1371.507842 57 31 30
96.520473 400.464245 1020.221517 82 63 64
96.802608 402.929110 1018.235217 79 61 63
98.874407 416.547258 1005.791631 93 71 68
98.523895 418.869074 1005.093269 86 68 65
99.860663 422.190956 1000.395444 91 71 67
9.959217 339.789396 1225.396424 50 30 24
72.406640 358.627853 1083.294589 54 31 33
56.126465 348.366558 1122.074350 128 93 75
108.019186 403.668001 986.463788 29 19 12
96.358517 445.206709 989.239485 75 55 50
97.185232 403.177607 1006.431385 80 57 45
97.185232 403.177607 1006.431385 80 57 45
-63.895572 336.815357 1376.528077 52 45 48
103.253858 413.251902 981.808409 50 38 27
94.668311 425.574308 992.478490 56 42 32
96.367533 433.330385 980.221279 41 35 45
150.733751 270.023034 936.043578 111 76 65
72.880111 291.154950 1076.964973 154 112 93
85.509885 440.212698 970.484392 125 90 73
85.858540 439.716685 960.268249 23 10 8
85.858540 439.716685 960.268249 23 10 8
84.164544 446.251218 958.955927 34 30 29
-73.683487 334.819377 1398.128780 129 97 77
110.465431 232.881937 975.938580 93 71 62
59.576627 388.183684 1047.329192 45 15 18
63.254917 391.356802 1035.935361 36 25 21
65.126914 398.966549 1026.413193 65 32 25
63.748401 428.176959 1013.537705 118 86 73
52.611167 294.331385 1105.372771 45 27 28
41.258598 301.502086 1129.508322 45 29 28
-87.952347 335.944210 1442.060255 149 112 91
-76.920819 333.546524 1410.055128 17 14 28
76.967627 408.888277 977.501296 117 82 67
42.576623 297.409022 1124.267159 39 23 21
17.871339 309.877414 1180.243047 37 23 24
76.828850 410.179043 973.557927 36 15 12
1.464883 316.583537 1218.713508 43 28 30
38.243233 298.623143 1131.412033 157 116 96
66.451566 430.057440 989.241327 21 16 16
68.580619 437.368886 975.860299 20 20 20
45.018636 291.771486 1115.870656 32 16 19
70.523817 383.482839 999.017794 42 31 57
70.523817 383.482839 999.017794 42 31 57
-88.356773 335.781012 1443.672379 67 42 33
19.932784 306.403711 1172.387745 36 17 20
-384.782859 300.552700 2249.004866 49 31 33
28.297154 296.458692 1155.602264 78 58 47
-74.661866 335.467287 1407.321155 41 28 25
1.811720 311.529091 1216.261753 74 54 42
66.015794 428.648816 980.361459 17 15 15
-7.340296 317.032457 1236.846847 123 95 79
-53.750798 331.827369 1352.805095 137 108 93
-73.920947 335.743126 1405.445874 131 102 88
-96.786389 342.438384 1464.327545 55 42 51
74.094214 390.030648 961.889460 11 8 8
50.969176 421.782490 999.476254 19 17 17
34.368774 370.613217 1070.463121 45 36 55
47.071099 430.966591 970.275321 23 18 18
47.726441 417.244563 970.776670 73 42 30
43.400649 430.471029 966.281472 18 17 17
41.131998 421.209436 963.871555 86 55 47
74.805878 210.271205 945.410840 133 93 72
49.108881 261.897967 1016.242002 28 23 31
48.265189 267.226973 1009.468449 46 29 19
60.041958 260.169808 962.644557 32 20 19
62.151480 262.541749 950.830453 38 25 23
36.833710 434.506424 932.196379 134 85 68
61.620244 253.036023 956.877206 151 115 93
65.069463 278.349671 926.839287 134 102 89
37.967076 434.741265 924.072591 46 13 17
37.967076 434.741265 924.072591 46 13 17
60.349512 260.260335 952.878983 159 119 99
37.140563 436.542803 924.232050 42 10 14
61.672082 264.469072 941.461928 161 122 98
61.672082 264.469072 941.461928 161 122 98
98.637587 297.075747 777.777140 33 25 36
-21.258152 309.347752 1226.615995 161 122 98
-104.323111 332.272049 1489.298057 41 28 25
-95.996992 333.872885 1464.347419 51 31 32
-82.536138 331.272064 1404.359452 143 110 96
-154.162653 332.716350 1423.529673 47 36 48
-206.313054 332.316906 1439.136929 45 35 46
-426.414300 331.576607 1506.226800 93 83 89
-206.423025 332.491953 1440.276950 39 32 42
261.339715 448.336086 1266.444166 134 96 81
261.339715 448.336086 1266.444166 134 96 81
274.134513 435.287885 1264.179389 89 67 64
-152.109331 328.804633 1425.589221 48 40 57
571.904403 244.493451 1182.644609 250 190 168
257.373627 401.460443 1273.683279 100 69 61
257.373628 401.460439 1273.683279 100 69 61
-207.231770 332.989956 1443.691487 47 36 46
258.388839 464.881833 1260.519780 51 16 9
262.979522 434.704365 1258.429002 72 62 74
266.148805 440.203970 1255.384272 121 88 72
265.124221 434.880430 1256.181007 110 84 75
-183.599606 314.192201 1443.360707 33 22 23
260.748472 436.714368 1251.172758 24 16 10
258.470177 443.427407 1250.781518 132 97 86
-226.641566 274.311806 1459.279774 135 103 93
-0.251901 345.641289 1365.998080 47 28 21
-210.893119 334.736033 1455.632802 47 36 48
232.135352 471.287897 1243.519922 18 11 11
-531.574238 338.620570 1590.931336 39 32 42
231.667659 327.827233 1264.062067 60 54 64
239.395049 392.281507 1248.028952 155 112 95
-211.181562 335.455009 1460.519084 45 35 42
250.673480 445.558902 1227.626506 53 31 23
251.618868 420.283808 1232.039927 162 118 102
246.849535 443.329741 1229.146073 100 73 60
246.849535 443.329741 1229.146073 100 73 60
246.481224 437.915655 1227.929281 115 86 73
239.656469 371.374641 1242.681956 52 45 57
245.032065 453.695398 1223.523256 90 57 43
-251.602794 363.429959 1478.439343 253 194 173
247.926356 455.379620 1220.588017 134 100 86
238.414163 346.575233 1246.386895 168 125 110
249.782972 441.822379 1222.185268 16 11 10
-184.590227 316.431627 1456.492345 154 117 101
-18.772617 347.007735 1354.072072 162 118 102
244.454108 442.611846 1221.075259 91 79 83
232.353592 342.948578 1245.434684 46 38 52
243.476042 445.331664 1217.478017 20 15 10
245.059601 454.714298 1214.388555 147 113 96
249.239546 454.457100 1210.392135 25 15 11
-409.378527 290.596989 1580.378675 37 30 40
243.049022 453.622067 1211.998748 84 53 39
243.049022 453.622067 1211.998748 84 53 39
244.967087 452.603415 1210.598761 40 27 23
244.967087 452.603415 1210.598761 40 27 23
245.019961 455.182919 1209.501314 135 103 93
-523.939080 322.487758 1636.814252 149 122 115
244.695576 437.831464 1211.828313 111 83 73
243.419618 376.755977 1224.233943 32 18 18
-339.336026 335.715110 1538.932181 162 129 119
-567.159098 347.458824 1657.168943 47 36 48
-545.007735 333.884541 1651.105473 157 124 113
227.538974 324.238333 1239.230959 39 32 42
-180.740344 313.652969 1461.590255 152 123 110
234.932406 337.920943 1232.278537 117 77 58
235.604679 419.918230 1213.861543 105 74 67
-409.770507 293.452911 1591.950789 45 38 54
-533.076333 321.734946 1658.367811 48 40 57
-144.806562 331.845418 1440.717381 163 130 116
233.911576 379.048714 1213.821997 169 125 108
217.149325 319.727076 1234.222030 112 76 68
238.440106 422.823554 1197.911955 43 37 52
216.686743 327.532772 1229.296410 174 128 112
204.086820 316.391341 1237.001232 159 115 101
252.439429 435.966695 1180.263401 132 100 84
38.427594 371.563889 1322.328714 117 87 73
-400.114495 284.721526 1611.462502 27 20 21
212.682784 319.327374 1225.589739 62 50 61
-408.688716 292.627670 1617.696042 54 46 42
54.680830 356.204811 1314.611041 28 21 19
245.369882 428.116209 1180.123282 92 81 92
620.525169 193.061204 986.108206 253 194 173
-127.161256 324.393319 1437.662691 155 122 100
-180.913404 312.644600 1474.058001 113 103 106
256.931867 437.837185 1165.934485 145 113 95
253.073327 435.081676 1167.297780 62 34 27
226.888667 335.398223 1205.073498 149 122 115
31.019935 372.853762 1323.326080 84 53 39
211.328022 319.693698 1216.757881 47 36 48
233.867608 368.019211 1192.050538 37 30 40
-12.048679 343.555170 1356.775273 30 21 17
257.529222 440.408927 1159.546831 157 122 102
243.034743 375.029844 1182.713268 156 121 104
239.338707 368.940842 1182.518312 59 46 42
214.084113 335.644227 1201.814919 48 40 57
159.370644 282.393289 1233.506215 168 125 99
230.868889 364.896381 1183.100768 45 38 54
201.172427 316.477070 1211.053265 58 49 59
201.172427 316.477070 1211.053265 58 49 59
-191.091840 291.593440 1494.774825 56 25 22
-189.624690 290.256909 1494.654497 128 97 77
168.345338 280.535207 1221.962613 121 82 66
168.345338 280.535208 1221.962613 121 82 66
-189.367380 290.052484 1494.910914 63 34 28
-189.413152 290.300298 1495.320724 119 92 72
-188.924500 290.081407 1495.147071 76 44 32
-189.873144 291.466345 1495.740263 132 100 79
-189.797958 291.919027 1496.223515 42 19 15
185.534667 312.805178 1212.426665 161 117 103
25.692703 307.119142 1310.692521 68 39 40
-389.489582 292.415568 1651.284334 154 121 103
-389.489582 292.415568 1651.284334 154 121 103
-123.525938 333.468335 1440.601831 41 31 48
-159.751862 339.733283 1466.338812 52 47 58
-424.359754 352.816417 1666.592719 80 52 34
218.178400 328.574051 1174.041286 91 55 42
208.464325 326.688474 1179.893288 165 128 111
-157.954554 338.120725 1466.939551 147 109 94
-322.958637 340.609815 1595.907538 72 44 32
-149.341890 321.566210 1464.912406 107 91 92
249.627523 373.095878 1134.971833 114 100 102
244.279476 368.544408 1139.560222 114 100 102
244.279473 368.544407 1139.560227 114 100 102
195.715011 317.390319 1187.363112 96 63 48
196.477925 317.444364 1186.559115 96 61 49
233.752550 362.686498 1146.963423 48 41 54
-122.785705 334.218509 1441.865954 106 86 88
-124.146131 337.288987 1442.225694 36 27 37
-30.339426 339.997596 1363.503288 30 21 17
196.525900 318.108143 1184.161972 111 93 95
190.565973 315.991395 1188.756206 107 91 96
190.565973 315.991396 1188.756206 107 91 96
31.276552 349.473017 1311.404893 135 102 87
-123.171658 336.005693 1442.656970 70 41 29
-123.171658 336.005692 1442.656970 70 41 29
31.383199 348.619173 1310.771599 38 27 22
254.923118 376.590862 1119.287471 28 20 21
-119.359548 327.669185 1442.078737 17 15 15
-384.497530 356.935754 1656.063596 42 33 44
228.278523 358.627762 1135.572089 111 75 64
225.478437 357.457042 1124.911428 118 81 69
-226.762542 347.930203 1538.049259 52 47 58
-110.775131 325.950275 1439.845658 142 112 98
241.305320 363.559043 1100.693469 32 22 21
178.088081 323.709383 1163.415091 71 43 33
-205.937649 315.945190 1530.608566 21 16 14
169.540626 324.704457 1168.229387 70 39 29
271.620983 386.484921 1060.871364 153 122 106
-220.047703 345.454191 1536.947126 76 44 31
-141.225456 340.148996 1466.051819 36 27 37
-139.309454 335.846004 1465.531426 106 86 88
-259.409091 309.217375 1579.927057 169 126 109
224.241023 358.007194 1105.133889 45 40 55
135.500593 313.957899 1195.653373 102 89 92
-40.343939 338.053480 1367.190580 30 21 17
-48.642550 332.316543 1375.813298 137 109 98
147.462769 319.454000 1182.588073 136 110 104
125.805937 312.338984 1204.434797 95 87 96
125.805937 312.338984 1204.434796 95 87 96
284.999044 394.652644 1034.982717 154 118 103
-139.703336 338.330627 1466.424001 70 41 29
-139.703338 338.330641 1466.423998 70 41 29
-133.953539 326.734853 1464.935783 17 15 15
-212.675685 345.846462 1536.855536 76 49 35
-99.848785 323.928869 1407.436737 133 102 90
104.359387 313.813044 1214.759634 42 33 44
-32.359064 346.825973 1351.018257 59 38 39
-24.477315 326.453148 1320.405769 119 104 106
-109.741064 317.852160 1445.521433 29 19 13
-109.741064 317.852160 1445.521433 29 19 13
60.368219 350.568789 1215.347786 43 23 20
13.976374 337.894217 1272.011221 51 39 37
63.367154 354.150160 1209.822024 142 106 89
-47.943026 327.332464 1345.378512 149 115 97
-47.943026 327.332464 1345.378512 149 115 97
7.088829 345.565399 1301.004774 113 103 106
-66.487173 328.878594 1365.564298 145 115 103
-211.825079 351.909495 1564.568639 36 27 37
-211.825079 351.909495 1564.568639 36 27 37
-128.579245 328.539661 1474.105510 84 63 66
-207.336140 347.795216 1563.683105 70 41 29
-55.087019 335.541338 1377.047685 130 90 78
-110.074602 317.133535 1446.623235 30 21 13
-116.473888 334.744041 1423.424561 47 38 49
-199.848190 341.572632 1562.087019 41 37 51
-330.933220 285.704270 1713.246081 102 74 73
-249.722763 391.757118 1606.577153 154 114 91
-210.399922 350.789152 1557.784186 51 37 47
-152.473166 342.254410 1516.965539 35 18 20
-226.584408 352.271037 1583.674952 64 38 29
-223.542539 353.881483 1580.915753 36 27 37
-500.241921 275.965917 2023.509140 100 78 83
-465.165908 294.861793 1968.368337 96 81 84
-57.012576 331.750442 1377.462901 137 109 98
-217.407341 354.427264 1574.652317 50 43 55
-353.889195 318.087723 1794.918071 28 27 44
-57.993987 334.936264 1377.624844 130 90 78
-116.840258 314.097174 1461.683703 30 21 13
-247.011983 354.147317 1626.050990 68 39 30
-271.576775 349.723595 1668.603761 148 119 108
-214.065110 376.271485 1594.081153 75 45 42
-209.950868 375.703814 1590.857063 29 13 12
-483.668275 135.224447 2192.390547 59 20 15
-476.708675 141.421695 2179.990513 163 105 85
-477.101814 136.029950 2183.941556 158 102 78
-477.101824 136.029947 2183.941574 158 102 78
-469.997895 141.326580 2171.860691 59 21 13
-22.589432 334.883087 1314.384535 51 39 37
-88.530723 326.948298 1398.574016 29 19 13
-393.050399 179.653987 2044.869486 133 98 78
-108.294921 318.472400 1442.319949 29 19 13
-112.731799 316.569863 1452.140557 29 19 13
-249.853990 354.721257 1690.132535 145 119 101
-294.287322 323.020722 1795.102302 84 63 66
-59.523270 331.580836 1377.959138 137 109 98
-59.523270 331.580836 1377.959138 137 109 98
-241.797180 354.664654 1685.590689 113 84 75
-125.182830 327.411190 1472.079121 21 17 18
-236.047259 355.810070 1677.231937 23 18 14
-285.774465 317.531980 1799.721771 21 17 18
-236.611229 355.246342 1682.263999 138 111 91
-44.513033 329.954514 1335.155326 163 119 104
-51.078259 341.164562 1351.062251 128 97 77
-51.079369 340.892432 1351.013613 73 40 29
-51.079369 340.892432 1351.013613 73 40 29
-51.188517 341.133403 1350.931556 119 92 72
-51.083959 340.452984 1350.848242 155 117 100
-51.142789 340.664720 1350.745257 42 19 15
-63.410060 337.293331 1343.501335 22 17 14
133.986027 365.126321 1355.060127 107 84 82
136.908453 407.223861 1352.737699 90 69 61
137.721250 404.455440 1352.540293 109 74 65
137.744105 403.405472 1352.373485 34 22 26
23.817425 332.028206 1368.158780 126 111 111
139.219001 393.356185 1351.673010 45 32 34
131.526199 337.909524 1355.789675 100 86 93
139.209960 398.461994 1351.212143 111 83 76
139.456983 396.199876 1351.081517 124 90 79
3.062480 341.974254 1369.769908 50 27 20
140.460379 384.325152 1350.440995 91 56 46
141.230460 406.249145 1348.799426 37 24 22
135.396269 342.240155 1352.010490 115 83 66
64.522257 338.058800 1360.536386 57 45 62
143.087295 408.556202 1346.603159 54 34 30
143.246043 378.961472 1347.255132 148 110 94
143.904301 385.231239 1346.738492 135 97 83
144.316833 410.171212 1345.467476 45 27 24
144.316833 410.171212 1345.467476 45 27 24
144.690603 392.590422 1346.053108 77 48 42
144.468564 401.885564 1345.614248 113 83 73
65.112021 334.726800 1359.805061 116 99 102
144.496860 401.895107 1345.606406 113 83 73
144.410798 409.248079 1345.196335 128 93 76
110.243900 315.552406 1355.330671 176 124 102
110.243900 315.552406 1355.330671 176 124 102
144.726926 397.681453 1345.552172 124 89 75
141.821956 363.977636 1347.840196 149 110 95
119.918690 310.472758 1354.525774 27 18 16
115.497542 313.314200 1354.715418 77 48 42
145.121219 392.912249 1345.285051 120 91 76
144.339832 377.524531 1346.175283 142 108 93
145.325409 390.479033 1345.074237 120 89 77
145.465487 413.499073 1343.854575 56 35 33
145.692329 412.133736 1343.496236 117 81 68
145.742981 390.496143 1344.378035 61 36 33
146.086256 384.777364 1344.215094 138 99 86
146.034136 382.463239 1344.301186 139 103 87
145.346102 377.775499 1344.579848 137 101 86
146.743295 382.216979 1343.483230 92 55 43
146.743295 382.216979 1343.483230 92 55 43
147.094641 384.828009 1343.227377 79 49 42
145.806190 405.846737 1342.095941 97 75 71
-47.954941 322.952135 1375.726909 173 128 112
146.195058 407.424467 1341.901244 98 69 62
146.100319 403.102704 1341.957036 87 68 65
148.324625 412.448796 1341.147390 51 28 25
146.900656 378.426910 1343.039414 84 52 44
146.410185 397.682193 1341.807888 80 61 58
147.132009 399.162365 1341.513736 93 69 62
146.720854 395.074808 1341.685267 79 62 60
145.262371 406.246816 1341.347639 28 19 16
145.262371 406.246816 1341.347639 28 19 16
149.106192 413.944835 1340.148242 55 33 29
147.132468 378.108776 1342.273701 127 94 79
147.745038 408.180949 1340.338638 96 69 60
150.713083 416.192750 1338.445872 54 35 29
150.623805 415.623415 1338.408091 48 30 28
149.797345 385.654366 1340.058333 136 100 86
145.417751 363.426672 1342.041350 40 36 48
152.832933 411.543423 1337.865181 22 17 28
149.909264 378.724804 1339.797060 128 94 79
150.803460 385.789355 1339.060088 98 59 50
150.803460 385.789355 1339.060088 98 59 50
150.819412 382.947924 1338.724554 88 52 44
151.585426 387.365800 1338.219804 140 104 90
152.241584 413.896900 1336.492563 36 19 17
147.840687 362.382910 1340.419099 94 83 85
151.144541 381.890638 1338.368822 100 64 51
108.314601 312.409779 1350.074795 115 80 66
140.603232 336.561074 1343.490107 51 39 46
150.561064 375.302663 1338.180901 96 87 89
150.404196 374.377223 1338.187037 100 92 96
152.289449 408.636651 1334.763920 92 72 68
211.744665 423.683906 1322.843627 105 81 71
152.779700 402.975524 1334.575137 100 78 71
153.536830 401.694738 1334.296371 81 61 57
152.989092 398.777014 1334.519382 99 80 74
150.008347 359.862418 1337.737933 172 128 109
153.126300 396.011355 1334.455804 88 68 64
64.549702 335.838703 1353.487219 55 36 27
154.451826 411.266638 1332.836754 106 77 69
29.775329 347.962881 1359.042436 74 44 37
145.126899 342.425616 1339.315562 32 24 23
154.925854 382.059507 1333.992945 102 64 52
